# This PCD file was generated using the MATLAB® pcwrite function
# from Computer Vision Toolbox®.
# .PCD v.7 - Point Cloud Data file format
VERSION .7
FIELDS x y z rgb
SIZE 4 4 4 4
TYPE F F F F
COUNT 1 1 1 1
WIDTH 1051
HEIGHT 1
VIEWPOINT 0 0 0 1 0 0 0
POINTS 1051
DATA ascii
-0.622070 -1.039060 -2.083980 1.836321763e-39
-0.606445 -1.023440 -2.052730 1.836321763e-39
-0.596680 -1.017580 -2.042970 9.179808149e-40
-0.584473 -1.007810 -2.021480 8.896283431e-41
-0.576660 -1.004880 -2.015630 8.752790468e-41
-0.566406 -0.998535 -2.001950 8.465804542e-41
-0.558105 -0.994629 -1.995120 8.465804542e-41
-0.552734 -0.996582 -1.999020 8.716917227e-41
-0.545898 -0.995605 -1.997070 8.932156671e-41
-0.541016 -0.998047 -2.001950 8.261467200e-40
-0.537598 -1.002930 -2.011720 4.775012799e-39
-0.533691 -1.007810 -2.021480 4.775012799e-39
-0.530762 -1.014650 -2.035160 6.428026506e-39
-0.530273 -1.026370 -2.058590 1.864196112e-38
-0.582031 -1.139650 -2.287110 1.910113160e-38
-0.585938 -1.162110 -2.332030 2.167248625e-38
-0.588867 -1.182620 -2.373050 2.167248625e-38
-0.570313 -1.160160 -2.326170 2.121331578e-38
-0.574219 -1.182620 -2.373050 2.249899311e-38
-0.576172 -1.202150 -2.412110 2.341625786e-38
-0.566406 -1.197270 -2.402340 2.341554039e-38
-0.561035 -1.202150 -2.412110 2.341554039e-38
-0.560059 -1.216800 -2.441410 2.341267053e-38
-0.557129 -1.227540 -2.460940 2.341015941e-38
-0.553223 -1.235350 -2.478520 2.340872448e-38
-0.547363 -1.239260 -2.486330 2.341015941e-38
-0.537109 -1.234380 -2.476560 2.341015941e-38
-0.528320 -1.231450 -2.470700 2.341195307e-38
-0.520508 -1.231450 -2.470700 2.341267053e-38
-0.512207 -1.230470 -2.466800 2.341410546e-38
-0.502930 -1.227540 -2.460940 2.341697532e-38
-0.493896 -1.222660 -2.453130 2.341697532e-38
-0.484619 -1.218750 -2.445310 2.304999768e-38
-0.473389 -1.209960 -2.427730 2.259082720e-38
-0.464844 -1.208010 -2.421880 2.240715901e-38
-0.456299 -1.206050 -2.417970 2.231532492e-38
-0.448486 -1.204100 -2.416020 2.231532492e-38
-0.440918 -1.204100 -2.416020 2.231532492e-38
-0.433350 -1.204100 -2.416020 2.249899311e-38
-0.426025 -1.206050 -2.417970 2.268266130e-38
-0.418945 -1.207030 -2.421880 2.314183177e-38
-0.411865 -1.208980 -2.423830 2.314183177e-38
-0.404785 -1.209960 -2.427730 2.332549996e-38
-0.397705 -1.211910 -2.429690 2.341697532e-38
-0.390381 -1.212890 -2.433590 2.341625786e-38
-0.383057 -1.213870 -2.435550 2.341625786e-38
-0.375732 -1.214840 -2.437500 2.341625786e-38
-0.368164 -1.214840 -2.437500 2.341661659e-38
-0.360596 -1.214840 -2.437500 2.341733406e-38
-0.352783 -1.214840 -2.437500 2.323366587e-38
-0.344971 -1.213870 -2.435550 2.286632949e-38
-0.336914 -1.212890 -2.431640 2.286632949e-38
-0.328857 -1.211910 -2.429690 2.268266130e-38
-0.320801 -1.209960 -2.427730 2.249899311e-38
-0.312988 -1.208980 -2.423830 2.231532492e-38
-0.304932 -1.208010 -2.421880 2.213165673e-38
-0.297119 -1.207030 -2.419920 2.213165673e-38
-0.289551 -1.206050 -2.419920 2.203982123e-38
-0.281738 -1.206050 -2.419920 2.203982263e-38
-0.274170 -1.206050 -2.419920 2.203982263e-38
-0.266846 -1.207030 -2.419920 2.222349082e-38
-0.259277 -1.208010 -2.421880 2.222349082e-38
-0.251953 -1.208980 -2.423830 2.240715901e-38
-0.244629 -1.209960 -2.425780 2.249899311e-38
-0.237183 -1.210940 -2.427730 2.268266130e-38
-0.229980 -1.212890 -2.431640 2.304999768e-38
-0.222656 -1.213870 -2.435550 2.304999768e-38
-0.215454 -1.216800 -2.441410 2.323366587e-38
-0.208252 -1.219730 -2.447270 2.341697532e-38
-0.201050 -1.221680 -2.451170 2.341625786e-38
-0.193726 -1.224610 -2.457030 2.341518166e-38
-0.186401 -1.227540 -2.462890 2.341518166e-38
-0.178955 -1.229490 -2.466800 2.341482293e-38
-0.171509 -1.231450 -2.468750 2.341482293e-38
-0.163818 -1.232420 -2.472660 2.341482293e-38
-0.156128 -1.232420 -2.472660 2.341482293e-38
-0.148438 -1.232420 -2.472660 2.341482293e-38
-0.140625 -1.232420 -2.472660 2.341482293e-38
-0.132813 -1.232420 -2.472660 2.341482293e-38
-0.125122 -1.233400 -2.474610 2.341482293e-38
-0.117432 -1.233400 -2.474610 2.341482293e-38
-0.109680 -1.233400 -2.474610 2.341482293e-38
-0.101929 -1.233400 -2.474610 2.341518166e-38
-0.094116 -1.233400 -2.474610 2.341518166e-38
-0.086365 -1.233400 -2.474610 2.341518166e-38
-0.078491 -1.231450 -2.470700 2.341589913e-38
-0.070618 -1.230470 -2.466800 2.341589913e-38
-0.062805 -1.228520 -2.464840 2.341625786e-38
-0.054993 -1.226560 -2.460940 2.341625786e-38
-0.047180 -1.224610 -2.457030 2.341661659e-38
-0.039368 -1.221680 -2.451170 2.332549996e-38
-0.031616 -1.218750 -2.445310 2.332549996e-38
-0.023865 -1.214840 -2.437500 2.323366587e-38
-0.016159 -1.210940 -2.427730 2.295816358e-38
-0.008507 -1.206050 -2.419920 2.277449539e-38
-0.000910 -1.201170 -2.410160 2.213165673e-38
0.006630 -1.197270 -2.402340 2.213165673e-38
0.014114 -1.192380 -2.392580 2.176432035e-38
0.021545 -1.188480 -2.382810 2.148881806e-38
0.028915 -1.183590 -2.375000 2.112148168e-38
0.036224 -1.178710 -2.365230 2.038680893e-38
0.043457 -1.173830 -2.355470 2.038680893e-38
0.050629 -1.168950 -2.343750 1.992763845e-38
0.057678 -1.162110 -2.332030 1.956030207e-38
0.064636 -1.156250 -2.318360 1.910113020e-38
0.071472 -1.149410 -2.304690 1.809095515e-38
0.078247 -1.141600 -2.291020 1.809095515e-38
0.084900 -1.134770 -2.277340 1.735628379e-38
0.091431 -1.127930 -2.261720 1.616244056e-38
0.097839 -1.119140 -2.246090 1.441759136e-38
0.104065 -1.111330 -2.228520 1.157073582e-38
0.110168 -1.101560 -2.210940 1.157073582e-38
0.116028 -1.091800 -2.189450 1.120339804e-38
0.122070 -1.083980 -2.173830 1.065239487e-38
0.125244 -1.053710 -2.113280 7.805537929e-39
0.153320 -1.063480 -2.134770 1.083606306e-38
0.162720 -1.082030 -2.169920 1.304008134e-38
0.171387 -1.093750 -2.195310 1.616244056e-38
0.180054 -1.105470 -2.216800 1.616244056e-38
0.189575 -1.120120 -2.246090 1.809095655e-38
0.197876 -1.126950 -2.261720 1.855012703e-38
0.206665 -1.136720 -2.279300 1.910113160e-38
0.214722 -1.140630 -2.289060 1.946846798e-38
0.222534 -1.144530 -2.296880 1.946846798e-38
0.230103 -1.146480 -2.300780 1.946846798e-38
0.237427 -1.146480 -2.300780 1.928479979e-38
0.244263 -1.144530 -2.296880 1.910113160e-38
0.250488 -1.140630 -2.289060 1.799912246e-38
0.256348 -1.134770 -2.277340 1.799912246e-38
0.261719 -1.127930 -2.261720 1.662161104e-38
0.268555 -1.126950 -2.259770 1.561143599e-38
0.243652 -0.995117 -1.996090 0.000000000e+00
0.248901 -0.991211 -1.988280 8.286438339e-41
0.255859 -0.994141 -1.994140 8.286438339e-41
0.259277 -0.982910 -1.972660 7.640720007e-41
0.262939 -0.974121 -1.954100 7.030874915e-41
0.272705 -0.987305 -1.980470 7.461353803e-41
0.276367 -0.978027 -1.961910 5.882931213e-41
0.279785 -0.968750 -1.943360 5.882931213e-41
0.282471 -0.957520 -1.920900 4.089269179e-41
0.283691 -0.940918 -1.887700 3.156564921e-41
0.284180 -0.923340 -1.852540 2.510846588e-41
0.285645 -0.909668 -1.824220 2.080367700e-41
0.292236 -0.912109 -1.830080 2.080367700e-41
0.290527 -0.889648 -1.784180 1.578142331e-41
0.298340 -0.895996 -1.797850 1.685762053e-41
0.302002 -0.890625 -1.786130 1.614015571e-41
0.305908 -0.885742 -1.776370 2.223860663e-41
0.310059 -0.881348 -1.768550 2.223860663e-41
0.315918 -0.881836 -1.769530 2.474973348e-41
0.322754 -0.886230 -1.777340 6.708015749e-41
0.332764 -0.897461 -1.800780 1.928155858e-39
0.342773 -0.909180 -1.823240 7.989206119e-39
0.405518 -1.057620 -2.123050 7.989206119e-39
0.416992 -1.070310 -2.146480 9.366717542e-39
0.428223 -1.081050 -2.169920 1.028505849e-38
0.427490 -1.062500 -2.132810 9.734053921e-39
0.438721 -1.074220 -2.154300 1.092789715e-38
0.448975 -1.082030 -2.171880 1.092789715e-38
0.457764 -1.086910 -2.179690 1.120339804e-38
0.463867 -1.085940 -2.177730 1.111156534e-38
0.471680 -1.087890 -2.181640 1.120339944e-38
0.478271 -1.086910 -2.179690 1.083606306e-38
0.484375 -1.084960 -2.175780 1.083606306e-38
0.489502 -1.081050 -2.169920 1.037689118e-38
0.494629 -1.078130 -2.162110 1.010139030e-38
0.499756 -1.074220 -2.154300 9.734053921e-39
0.504395 -1.069340 -2.144530 8.632043382e-39
0.508301 -1.064450 -2.134770 8.632043382e-39
0.513184 -1.059570 -2.126950 8.081040214e-39
0.517090 -1.054690 -2.117190 7.621869740e-39
0.521484 -1.049800 -2.105470 7.070863769e-39
0.525391 -1.044920 -2.095700 6.060690127e-39
0.529785 -1.040040 -2.085940 6.060690127e-39
0.533691 -1.035160 -2.076170 5.509685558e-39
0.537598 -1.030270 -2.066410 4.775012799e-39
0.541504 -1.025390 -2.056640 4.132174135e-39
0.545410 -1.020510 -2.046880 2.846496807e-39
0.549805 -1.016600 -2.039060 2.846496807e-39
0.553711 -1.012700 -2.031250 2.203658143e-39
0.558105 -1.008790 -2.023440 1.468983983e-39
0.562500 -1.004880 -2.015630 7.343126252e-40
0.566895 -1.000980 -2.009770 8.788663709e-41
0.570801 -0.998047 -2.001950 8.788663709e-41
0.575684 -0.995605 -1.997070 8.609297505e-41
0.580566 -0.993164 -1.992190 8.465804542e-41
0.585938 -0.991699 -1.989260 8.358184820e-41
0.591797 -0.990723 -1.987300 8.429931302e-41
0.597656 -0.990723 -1.987300 8.429931302e-41
0.604492 -0.991211 -1.988280 8.501677783e-41
0.610840 -0.991211 -1.988280 8.537551024e-41
0.617188 -0.991699 -1.989260 8.573424264e-41
0.624023 -0.992188 -1.990230 8.609297505e-41
0.629883 -0.992188 -1.990230 8.609297505e-41
0.636230 -0.992188 -1.990230 8.609297505e-41
0.643066 -0.992676 -1.991210 8.609297505e-41
0.649414 -0.993164 -1.992190 8.609297505e-41
0.656250 -0.993652 -1.993160 8.716917227e-41
0.663086 -0.994629 -1.995120 8.716917227e-41
0.670410 -0.996094 -1.998050 8.860410190e-41
0.677734 -0.997559 -2.000000 9.003903153e-41
0.685059 -0.999512 -2.003910 1.833080560e-40
0.692383 -1.000980 -2.007810 7.343126252e-40
0.699707 -1.001950 -2.011720 7.343126252e-40
0.707031 -1.002930 -2.013670 8.261467200e-40
0.713867 -1.004880 -2.015630 9.179808149e-40
0.721191 -1.005860 -2.017580 1.009814910e-39
0.727539 -1.005860 -2.017580 1.285315793e-39
0.734863 -1.006840 -2.019530 1.285315793e-39
0.741699 -1.007810 -2.021480 1.468983983e-39
0.749023 -1.009770 -2.025390 1.836321763e-39
0.756836 -1.010740 -2.027340 2.019989953e-39
0.764648 -1.012700 -2.031250 2.846496807e-39
0.772461 -1.014650 -2.035160 2.846496807e-39
0.780273 -1.016600 -2.039060 3.305667281e-39
0.788574 -1.019530 -2.044920 3.764837756e-39
0.797363 -1.021480 -2.050780 4.407676420e-39
0.806152 -1.025390 -2.056640 5.509685558e-39
0.815430 -1.028320 -2.062500 5.509685558e-39
0.824707 -1.032230 -2.070310 6.060690127e-39
0.833984 -1.036130 -2.078130 6.611694696e-39
0.844238 -1.040040 -2.087890 7.162699265e-39
0.854980 -1.045900 -2.097660 8.264707002e-39
0.865723 -1.050780 -2.107420 8.264707002e-39
0.876465 -1.055660 -2.117190 8.815712973e-39
0.886719 -1.059570 -2.126950 9.274883447e-39
0.896973 -1.063480 -2.134770 9.642219827e-39
0.906738 -1.067380 -2.140630 9.917722111e-39
0.915527 -1.070310 -2.146480 9.917722111e-39
0.924316 -1.072270 -2.152340 1.000955621e-38
0.932617 -1.074220 -2.154300 1.000955621e-38
0.939453 -1.074220 -2.156250 9.825888016e-39
0.945801 -1.074220 -2.154300 9.366717542e-39
0.951660 -1.072270 -2.152340 9.366717542e-39
0.955566 -1.069340 -2.144530 8.907547068e-39
0.958496 -1.065430 -2.136720 8.356542499e-39
0.960938 -1.060550 -2.126950 7.805537929e-39
0.963379 -1.055660 -2.119140 6.979031076e-39
0.965820 -1.051760 -2.109380 6.979031076e-39
0.968750 -1.047850 -2.101560 6.703528791e-39
0.973145 -1.044920 -2.095700 6.611694696e-39
0.978027 -1.042970 -2.093750 6.703528791e-39
0.983887 -1.041990 -2.091800 6.887196981e-39
0.989746 -1.041990 -2.089840 6.887196981e-39
0.995605 -1.041020 -2.087890 6.887196981e-39
1.000000 -1.039060 -2.085940 6.795362886e-39
1.003910 -1.036130 -2.080080 6.428026506e-39
1.006840 -1.032230 -2.070310 5.417851463e-39
1.008790 -1.028320 -2.062500 5.417851463e-39
1.010740 -1.023440 -2.052730 4.775012799e-39
1.012700 -1.018550 -2.042970 3.948505945e-39
1.014650 -1.014650 -2.035160 3.397501376e-39
1.017580 -1.010740 -2.027340 2.479160428e-39
1.021480 -1.008790 -2.023440 2.479160428e-39
1.025390 -1.006840 -2.019530 2.203658143e-39
1.031250 -1.005860 -2.017580 2.019989953e-39
1.037110 -1.004880 -2.015630 1.928155858e-39
1.042970 -1.004880 -2.015630 1.836321763e-39
1.048830 -1.004880 -2.015630 1.836321763e-39
1.055660 -1.004880 -2.015630 1.744487669e-39
1.061520 -1.004880 -2.015630 1.744487669e-39
1.068360 -1.004880 -2.015630 1.560818078e-39
1.074220 -1.004880 -2.015630 1.285315793e-39
1.081050 -1.004880 -2.015630 1.285315793e-39
1.085940 -1.003910 -2.013670 1.101649005e-39
1.092770 -1.003910 -2.013670 9.179808149e-40
1.098630 -1.002930 -2.013670 7.343126252e-40
1.104490 -1.002930 -2.013670 8.261467200e-40
1.111330 -1.002930 -2.013670 8.261467200e-40
1.118160 -1.004880 -2.015630 1.101649005e-39
1.126950 -1.006840 -2.019530 1.744487669e-39
1.136720 -1.008790 -2.023440 2.295492238e-39
1.146480 -1.012700 -2.031250 3.948505945e-39
1.157230 -1.016600 -2.039060 3.948505945e-39
1.168950 -1.020510 -2.048830 4.683178704e-39
1.179690 -1.025390 -2.056640 5.142349178e-39
1.190430 -1.028320 -2.062500 5.693353748e-39
1.200200 -1.031250 -2.068360 6.060690127e-39
1.209960 -1.033200 -2.072270 6.060690127e-39
1.217770 -1.035160 -2.076170 6.152524222e-39
1.225590 -1.036130 -2.080080 6.152524222e-39
1.233400 -1.037110 -2.080080 6.152524222e-39
1.240230 -1.037110 -2.082030 6.060690127e-39
1.247070 -1.038090 -2.082030 6.060690127e-39
1.253910 -1.038090 -2.082030 6.060690127e-39
1.259770 -1.037110 -2.082030 5.968856032e-39
1.265630 -1.036130 -2.080080 5.785186441e-39
1.269530 -1.035160 -2.076170 5.509685558e-39
1.274410 -1.033200 -2.072270 5.509685558e-39
1.279300 -1.032230 -2.070310 5.234183273e-39
1.283200 -1.030270 -2.066410 4.958680989e-39
1.287110 -1.028320 -2.062500 4.591344609e-39
1.291020 -1.025390 -2.056640 3.856671850e-39
1.294920 -1.023440 -2.052730 3.856671850e-39
1.298830 -1.021480 -2.048830 3.489335471e-39
1.302730 -1.019530 -2.044920 3.305667281e-39
1.306640 -1.017580 -2.042970 3.030164997e-39
1.311520 -1.016600 -2.039060 2.846496807e-39
1.317380 -1.015630 -2.037110 2.846496807e-39
1.322270 -1.015630 -2.037110 2.754662712e-39
1.328130 -1.014650 -2.035160 2.846496807e-39
1.334960 -1.014650 -2.035160 2.846496807e-39
1.340820 -1.014650 -2.035160 3.121999092e-39
1.347660 -1.014650 -2.035160 3.121999092e-39
1.354490 -1.015630 -2.037110 3.213833186e-39
1.361330 -1.015630 -2.037110 3.305667281e-39
1.369140 -1.016600 -2.039060 3.489335471e-39
1.376950 -1.017580 -2.041020 3.948505945e-39
1.383790 -1.017580 -2.042970 3.948505945e-39
1.391600 -1.018550 -2.044920 4.040340040e-39
1.398440 -1.019530 -2.044920 4.132174135e-39
1.405270 -1.019530 -2.046880 4.224008230e-39
1.413090 -1.020510 -2.046880 4.132174135e-39
1.418950 -1.019530 -2.046880 4.132174135e-39
1.423830 -1.018550 -2.044920 3.948505945e-39
1.428710 -1.017580 -2.042970 3.764837756e-39
1.432620 -1.016600 -2.039060 3.489335471e-39
1.436520 -1.014650 -2.035160 2.754662712e-39
1.440430 -1.012700 -2.031250 2.754662712e-39
1.442380 -1.009770 -2.025390 2.295492238e-39
1.445310 -1.007810 -2.021480 1.744487669e-39
1.448240 -1.004880 -2.015630 9.179808149e-40
1.449220 -1.000980 -2.009770 8.716917227e-41
1.451170 -0.998535 -2.001950 8.716917227e-41
1.453130 -0.995117 -1.996090 8.322311580e-41
1.453130 -0.991211 -1.988280 7.963579173e-41
1.453130 -0.987305 -1.980470 7.640720007e-41
1.454100 -0.983398 -1.973630 7.066748156e-41
1.455080 -0.979492 -1.964840 7.066748156e-41
1.456050 -0.976563 -1.958980 6.851508711e-41
1.458010 -0.973633 -1.953130 6.708015749e-41
1.459960 -0.971191 -1.948240 6.636269267e-41
1.463870 -0.969238 -1.944340 6.456903064e-41
1.467770 -0.967773 -1.941410 6.456903064e-41
1.470700 -0.965820 -1.937500 6.349283342e-41
1.474610 -0.963867 -1.933590 6.205790379e-41
1.477540 -0.961914 -1.929690 6.062297416e-41
1.479490 -0.959473 -1.924800 5.631818528e-41
1.480470 -0.956543 -1.918950 5.631818528e-41
1.481450 -0.953125 -1.912110 5.344832603e-41
1.481450 -0.949707 -1.905270 5.021973436e-41
1.482420 -0.946289 -1.897460 4.734987511e-41
1.482420 -0.942383 -1.890630 4.161015660e-41
1.483400 -0.938965 -1.883790 4.161015660e-41
1.483400 -0.935547 -1.876950 3.981649457e-41
1.485350 -0.933105 -1.872070 3.838156494e-41
1.487300 -0.930664 -1.867190 3.694663531e-41
1.489260 -0.928223 -1.861330 3.479424087e-41
1.492190 -0.926270 -1.857420 3.479424087e-41
1.495120 -0.924805 -1.854490 3.371804365e-41
1.498050 -0.922363 -1.850590 3.300057883e-41
1.500980 -0.920898 -1.847660 3.228311402e-41
1.504880 -0.919434 -1.844730 3.048945199e-41
1.507810 -0.917969 -1.841800 3.048945199e-41
1.510740 -0.916016 -1.837890 3.013071958e-41
1.513670 -0.914551 -1.834960 2.941325477e-41
1.516600 -0.913086 -1.832030 2.905452236e-41
1.520510 -0.911621 -1.829100 2.833705755e-41
1.524410 -0.910645 -1.826170 2.833705755e-41
1.527340 -0.909180 -1.823240 2.833705755e-41
1.532230 -0.908691 -1.822270 2.833705755e-41
1.537110 -0.908203 -1.821290 2.833705755e-41
1.541990 -0.907715 -1.820310 2.833705755e-41
1.548830 -0.908203 -1.821290 2.833705755e-41
1.554690 -0.908203 -1.821290 2.869578995e-41
1.561520 -0.909180 -1.823240 2.905452236e-41
1.568360 -0.909668 -1.824220 2.905452236e-41
1.576170 -0.910645 -1.826170 2.941325477e-41
1.582030 -0.911133 -1.828130 2.941325477e-41
1.588870 -0.911621 -1.829100 2.941325477e-41
1.594730 -0.911621 -1.829100 2.941325477e-41
1.601560 -0.912109 -1.830080 2.941325477e-41
1.607420 -0.912109 -1.830080 2.977198717e-41
1.613280 -0.912109 -1.830080 2.977198717e-41
1.619140 -0.912598 -1.831050 3.013071958e-41
1.625980 -0.913086 -1.832030 3.013071958e-41
1.632810 -0.913574 -1.833010 3.048945199e-41
1.640630 -0.914551 -1.834960 3.120691680e-41
1.647460 -0.915527 -1.836910 3.120691680e-41
1.655270 -0.916504 -1.838870 3.156564921e-41
1.663090 -0.917480 -1.840820 3.228311402e-41
1.670900 -0.918457 -1.842770 3.264184643e-41
1.678710 -0.919922 -1.845700 3.371804365e-41
1.687500 -0.921387 -1.848630 3.371804365e-41
1.696290 -0.922852 -1.851560 3.479424087e-41
1.705080 -0.924805 -1.854490 3.551170568e-41
1.713870 -0.926758 -1.858400 3.658790290e-41
1.722660 -0.928223 -1.861330 3.766410012e-41
1.731450 -0.929688 -1.865230 3.766410012e-41
1.740230 -0.931152 -1.868160 3.838156494e-41
1.748050 -0.932129 -1.870120 3.909902975e-41
1.756840 -0.933594 -1.873050 3.945776216e-41
1.764650 -0.934570 -1.875000 4.053395938e-41
1.773440 -0.936035 -1.877930 4.053395938e-41
1.780270 -0.936523 -1.878910 4.089269179e-41
1.787110 -0.937012 -1.879880 4.161015660e-41
1.792970 -0.937012 -1.879880 4.089269179e-41
1.797850 -0.936523 -1.878910 3.909902975e-41
1.799800 -0.934570 -1.875000 3.909902975e-41
1.800780 -0.932129 -1.870120 3.766410012e-41
1.800780 -0.929199 -1.864260 3.587043809e-41
1.800780 -0.926270 -1.857420 3.371804365e-41
1.799800 -0.922363 -1.850590 3.048945199e-41
1.798830 -0.918945 -1.843750 3.048945199e-41
1.798830 -0.916016 -1.837890 2.941325477e-41
1.799800 -0.913574 -1.833010 2.833705755e-41
1.800780 -0.911133 -1.828130 2.761959273e-41
1.802730 -0.909668 -1.824220 2.690212792e-41
1.805660 -0.908203 -1.821290 2.690212792e-41
1.809570 -0.907227 -1.819340 2.654339551e-41
1.814450 -0.906738 -1.818360 2.654339551e-41
1.819340 -0.906250 -1.817380 2.654339551e-41
1.824220 -0.905762 -1.816410 2.690212792e-41
1.829100 -0.905762 -1.816410 2.690212792e-41
1.834960 -0.905762 -1.816410 2.690212792e-41
-2.884770 -1.491210 -2.972660 0.000000000e+00
-2.867190 -1.487300 -2.964840 2.333374940e-38
-2.845700 -1.481450 -2.953130 2.333590180e-38
-2.822270 -1.473630 -2.939450 2.333805419e-38
-2.798830 -1.465820 -2.921880 2.334235898e-38
-2.773440 -1.458010 -2.906250 2.334235898e-38
-2.750000 -1.450200 -2.890630 2.334487011e-38
-2.724610 -1.441410 -2.875000 2.334702250e-38
-2.701170 -1.433590 -2.857420 2.334917490e-38
-2.679690 -1.426760 -2.843750 2.335204476e-38
-2.658200 -1.419920 -2.832030 2.335204476e-38
-2.638670 -1.415040 -2.820310 2.335312095e-38
-2.623050 -1.411130 -2.812500 2.335419715e-38
-2.607420 -1.407230 -2.806640 2.335491462e-38
-2.593750 -1.405270 -2.800780 2.335634955e-38
-2.582030 -1.403320 -2.798830 2.335634955e-38
-2.570310 -1.401370 -2.792970 2.335706701e-38
-2.558590 -1.400390 -2.791020 2.335742574e-38
-2.548830 -1.399410 -2.789060 2.335778448e-38
-2.537110 -1.398440 -2.787110 2.335850194e-38
-2.527340 -1.397460 -2.785160 2.335850194e-38
-2.517580 -1.396480 -2.783200 2.335886067e-38
-2.507810 -1.396480 -2.783200 2.335921941e-38
-2.501950 -1.397460 -2.785160 2.335921941e-38
-2.496090 -1.399410 -2.789060 2.335921941e-38
-2.490230 -1.401370 -2.792970 2.335921941e-38
-2.486330 -1.403320 -2.798830 2.335886067e-38
-2.482420 -1.406250 -2.802730 2.335886067e-38
-2.474610 -1.407230 -2.806640 2.335850194e-38
-2.468750 -1.409180 -2.808590 2.335814321e-38
-2.460940 -1.409180 -2.808590 2.335814321e-38
-2.451170 -1.408200 -2.808590 2.335814321e-38
-2.439450 -1.407230 -2.806640 2.335814321e-38
-2.427730 -1.405270 -2.802730 2.335850194e-38
-2.416020 -1.403320 -2.798830 2.335886067e-38
-2.404300 -1.401370 -2.792970 2.335886067e-38
-2.390630 -1.399410 -2.789060 2.335957814e-38
-2.378910 -1.397460 -2.785160 2.336029560e-38
-2.365230 -1.394530 -2.779300 2.336101307e-38
-2.351560 -1.391600 -2.773440 2.336280673e-38
-2.337890 -1.388670 -2.767580 2.336280673e-38
-2.322270 -1.384770 -2.761720 2.336388293e-38
-2.308590 -1.381840 -2.753910 2.336495912e-38
-2.292970 -1.376950 -2.746090 2.336603532e-38
-2.279300 -1.374020 -2.740230 2.336711152e-38
-2.265630 -1.371090 -2.734380 2.336711152e-38
-2.253910 -1.369140 -2.730470 2.336747025e-38
-2.242190 -1.368160 -2.726560 2.336747025e-38
-2.234380 -1.367190 -2.726560 2.336711152e-38
-2.226560 -1.368160 -2.726560 2.336675279e-38
-2.216800 -1.368160 -2.726560 2.336675279e-38
-2.208980 -1.368160 -2.728520 2.336675279e-38
-2.199220 -1.368160 -2.726560 2.336675279e-38
-2.191410 -1.367190 -2.726560 2.336711152e-38
-2.179690 -1.366210 -2.722660 2.336854645e-38
-2.167970 -1.363280 -2.718750 2.336854645e-38
-2.156250 -1.361330 -2.712890 2.336926391e-38
-2.142580 -1.358400 -2.708980 2.336998138e-38
-2.130860 -1.356450 -2.705080 2.337034011e-38
-2.119140 -1.354490 -2.701170 2.337141631e-38
-2.107420 -1.352540 -2.697270 2.337141631e-38
-2.097660 -1.351560 -2.693360 2.337141631e-38
-2.085940 -1.349610 -2.689450 2.337213377e-38
-2.074220 -1.346680 -2.685550 2.337249250e-38
-2.062500 -1.344730 -2.681640 2.337428617e-38
-2.048830 -1.341800 -2.675780 2.337428617e-38
-2.037110 -1.338870 -2.669920 2.337500363e-38
-2.023440 -1.335940 -2.664060 2.337572110e-38
-2.011720 -1.333980 -2.658200 2.337643856e-38
-2.000000 -1.331050 -2.654300 2.337679729e-38
-1.990230 -1.330080 -2.652340 2.337679729e-38
-1.980470 -1.329100 -2.650390 2.337643856e-38
-1.972660 -1.329100 -2.650390 2.337607983e-38
-1.964840 -1.330080 -2.652340 2.337536236e-38
-1.958010 -1.331050 -2.654300 2.337428617e-38
-1.951170 -1.332030 -2.656250 2.337428617e-38
-1.945310 -1.333980 -2.658200 2.337356870e-38
-1.939450 -1.335940 -2.662110 2.337320997e-38
-1.933590 -1.336910 -2.666020 2.337285124e-38
-1.927730 -1.338870 -2.667970 2.337285124e-38
-1.920900 -1.339840 -2.671880 2.337285124e-38
-1.913090 -1.340820 -2.671880 2.337320997e-38
-1.906250 -1.341800 -2.673830 2.337356870e-38
-1.898440 -1.341800 -2.673830 2.337428617e-38
-1.889650 -1.341800 -2.673830 2.337536236e-38
-1.881840 -1.341800 -2.673830 2.337536236e-38
-1.872070 -1.340820 -2.673830 2.337607983e-38
-1.862300 -1.339840 -2.671880 2.337643856e-38
-1.852540 -1.338870 -2.669920 2.337715603e-38
-1.842770 -1.337890 -2.667970 2.337715603e-38
-1.832030 -1.336910 -2.664060 2.337715603e-38
-1.822270 -1.334960 -2.662110 2.337751476e-38
-1.810550 -1.333010 -2.658200 2.337787349e-38
-1.800780 -1.331050 -2.654300 2.337787349e-38
-1.790040 -1.329100 -2.650390 2.337823222e-38
-1.779300 -1.328130 -2.646480 2.337823222e-38
-1.768550 -1.326170 -2.642580 2.337859096e-38
-1.757810 -1.324220 -2.640630 2.337894969e-38
-1.747070 -1.322270 -2.636720 2.337966715e-38
-1.736330 -1.320310 -2.632810 2.338074335e-38
-1.723630 -1.317380 -2.626950 2.338074335e-38
-1.711910 -1.314450 -2.621090 2.338181955e-38
-1.699220 -1.311520 -2.613280 2.338253701e-38
-1.687500 -1.308590 -2.607420 2.338325448e-38
-1.675780 -1.305660 -2.603520 2.338397194e-38
-1.665040 -1.303710 -2.599610 2.338397194e-38
-1.656250 -1.303710 -2.597660 2.338397194e-38
-1.649410 -1.304690 -2.599610 2.338325448e-38
-1.643550 -1.306640 -2.603520 2.338253701e-38
-1.638670 -1.308590 -2.609380 2.338038462e-38
-1.634770 -1.312500 -2.617190 2.338038462e-38
-1.631840 -1.316410 -2.625000 2.337930842e-38
-1.628910 -1.320310 -2.632810 2.337787349e-38
-1.625000 -1.324220 -2.640630 2.337679729e-38
-1.621090 -1.328130 -2.646480 2.337428617e-38
-1.618160 -1.332030 -2.656250 2.337428617e-38
-1.614260 -1.335940 -2.662110 2.337320997e-38
-1.609380 -1.338870 -2.669920 2.337249250e-38
-1.604490 -1.341800 -2.673830 2.337213377e-38
-1.598630 -1.343750 -2.679690 2.337141631e-38
-1.591800 -1.345700 -2.681640 2.337141631e-38
-1.585940 -1.346680 -2.685550 2.337141631e-38
-1.578130 -1.347660 -2.685550 2.337141631e-38
-1.569340 -1.347660 -2.685550 2.337213377e-38
-1.559570 -1.346680 -2.683590 2.337356870e-38
-1.549800 -1.345700 -2.681640 2.337356870e-38
-1.539060 -1.343750 -2.677730 2.337428617e-38
-1.528320 -1.340820 -2.673830 2.337536236e-38
-1.516600 -1.338870 -2.667970 2.337643856e-38
-1.504880 -1.334960 -2.662110 2.337787349e-38
-1.493160 -1.332030 -2.656250 2.337787349e-38
-1.481450 -1.329100 -2.648440 2.337823222e-38
-1.470700 -1.327150 -2.644530 2.337894969e-38
-1.459960 -1.325200 -2.640630 2.337966715e-38
-1.450200 -1.324220 -2.638670 2.337966715e-38
-1.442380 -1.324220 -2.638670 2.337966715e-38
-1.434570 -1.324220 -2.640630 2.337966715e-38
-1.427730 -1.325200 -2.642580 2.337966715e-38
-1.419920 -1.326170 -2.644530 2.337930842e-38
-1.412110 -1.327150 -2.644530 2.337966715e-38
-1.404300 -1.327150 -2.644530 2.337966715e-38
-1.394530 -1.325200 -2.642580 2.338038462e-38
-1.383790 -1.323240 -2.638670 2.338074335e-38
-1.372070 -1.320310 -2.632810 2.338110208e-38
-1.361330 -1.317380 -2.626950 2.338289574e-38
-1.349610 -1.313480 -2.619140 2.338289574e-38
-1.336910 -1.310550 -2.611330 2.338325448e-38
-1.326170 -1.307620 -2.605470 2.338397194e-38
-1.315430 -1.304690 -2.601560 2.338468941e-38
-1.304690 -1.302730 -2.597660 2.338612434e-38
-1.295900 -1.301760 -2.593750 2.338612434e-38
-1.285160 -1.298830 -2.589840 2.338684180e-38
-1.275390 -1.297850 -2.587890 2.338791800e-38
-1.265630 -1.295900 -2.583980 2.338899420e-38
-1.255860 -1.293950 -2.580080 2.339150532e-38
-1.245120 -1.291990 -2.574220 2.339150532e-38
-1.235350 -1.290040 -2.570310 2.339258152e-38
-1.225590 -1.288090 -2.566410 2.339401645e-38
-1.215820 -1.286130 -2.562500 2.339509265e-38
-1.206050 -1.283200 -2.558590 2.339581011e-38
-1.196290 -1.282230 -2.556640 2.339581011e-38
-1.187500 -1.281250 -2.554690 2.339581011e-38
-1.179690 -1.281250 -2.554690 2.339545138e-38
-1.171880 -1.281250 -2.554690 2.339473391e-38
-1.165040 -1.282230 -2.556640 2.339258152e-38
-1.158200 -1.284180 -2.560550 2.339258152e-38
-1.151370 -1.286130 -2.562500 2.339150532e-38
-1.144530 -1.288090 -2.566410 2.339078786e-38
-1.138670 -1.289060 -2.570310 2.339042912e-38
-1.131840 -1.291020 -2.572270 2.338971166e-38
-1.124020 -1.291020 -2.574220 2.338971166e-38
-1.116210 -1.291990 -2.576170 2.338971166e-38
-1.108400 -1.291990 -2.576170 2.338971166e-38
-1.101560 -1.292970 -2.578130 2.338971166e-38
-1.093750 -1.293950 -2.580080 2.338863546e-38
-1.085940 -1.294920 -2.582030 2.338863546e-38
-1.080080 -1.296880 -2.585940 2.338755927e-38
-1.073240 -1.298830 -2.589840 2.338648307e-38
-1.067380 -1.301760 -2.595700 2.338540687e-38
-1.062500 -1.305660 -2.601560 2.338289574e-38
-1.057620 -1.308590 -2.609380 2.338289574e-38
-1.052730 -1.312500 -2.617190 2.338217828e-38
-1.046880 -1.316410 -2.625000 2.338146081e-38
-1.041020 -1.319340 -2.630860 2.338110208e-38
-1.034180 -1.321290 -2.634770 2.338074335e-38
-1.026370 -1.322270 -2.634770 2.338074335e-38
-1.018550 -1.322270 -2.634770 2.338110208e-38
-1.008790 -1.321290 -2.632810 2.338146081e-38
-0.999512 -1.319340 -2.628910 2.338181955e-38
-0.989746 -1.317380 -2.625000 2.338253701e-38
-0.979980 -1.314450 -2.621090 2.338253701e-38
-0.970215 -1.312500 -2.617190 2.338253701e-38
-0.960449 -1.310550 -2.613280 2.338289574e-38
-0.951172 -1.309570 -2.609380 2.338325448e-38
-0.941895 -1.307620 -2.607420 2.338397194e-38
-0.932617 -1.306640 -2.603520 2.338397194e-38
-0.923340 -1.304690 -2.599610 2.338433067e-38
-0.913086 -1.301760 -2.593750 2.338576560e-38
-0.902344 -1.297850 -2.587890 2.338684180e-38
-0.891602 -1.293950 -2.580080 2.339078786e-38
-0.879883 -1.289060 -2.568360 2.339078786e-38
-0.868164 -1.283200 -2.558590 2.339294025e-38
-0.855957 -1.277340 -2.546880 2.339581011e-38
-0.844238 -1.271480 -2.535160 2.339832124e-38
-0.832520 -1.265630 -2.523440 2.340334349e-38
-0.820313 -1.259770 -2.511720 2.340334349e-38
-0.808594 -1.252930 -2.498050 2.340693082e-38
-0.795898 -1.245120 -2.482420 2.341159434e-38
-0.782227 -1.236330 -2.464840 2.341661659e-38
-0.767578 -1.225590 -2.443360 1.956030207e-38
-0.751465 -1.211910 -2.416020 1.956030207e-38
-0.731934 -1.192380 -2.376950 7.897372024e-39
-0.659180 -1.084960 -2.162110 8.356542499e-39
-0.631348 -1.049800 -2.093750 5.417851463e-39
-0.620605 -1.042970 -2.080080 1.836321763e-39
-0.605469 -1.028320 -2.050780 1.836321763e-39
-0.596191 -1.023440 -2.039060 1.009814910e-39
-0.583984 -1.013670 -2.019530 8.896283431e-41
-0.575684 -1.009770 -2.013670 8.716917227e-41
-0.565918 -1.003910 -2.000000 8.429931302e-41
-0.557617 -1.000000 -1.993160 8.429931302e-41
-0.551758 -1.000980 -1.995120 8.609297505e-41
-0.545410 -1.000000 -1.994140 8.788663709e-41
-0.540039 -1.002930 -1.999020 4.588103406e-40
-0.537109 -1.007810 -2.009770 4.132174135e-39
-0.533203 -1.013670 -2.019530 4.132174135e-39
-0.530273 -1.019530 -2.033200 5.877021937e-39
-0.529297 -1.030270 -2.054690 8.264707002e-39
-0.536621 -1.056640 -2.107420 1.065239487e-38
-0.566406 -1.129880 -2.251950 1.946846798e-38
-0.569336 -1.150390 -2.292970 1.946846798e-38
-0.572266 -1.169920 -2.333980 2.057047711e-38
-0.574219 -1.190430 -2.373050 2.158065216e-38
-0.575684 -1.208980 -2.410160 2.268266130e-38
-0.561523 -1.194340 -2.380860 2.304999768e-38
-0.561035 -1.209960 -2.412110 2.304999768e-38
-0.541016 -1.182620 -2.357420 2.194798854e-38
-0.545410 -1.208980 -2.410160 2.304999768e-38
-0.541992 -1.217770 -2.427730 2.341697532e-38
-0.537598 -1.225590 -2.443360 2.341554039e-38
-0.531738 -1.229490 -2.451170 2.341554039e-38
-0.521973 -1.224610 -2.441410 2.341697532e-38
-0.514648 -1.225590 -2.443360 2.341733406e-38
-0.505371 -1.221680 -2.433590 2.304999768e-38
-0.496826 -1.218750 -2.429690 2.259082720e-38
-0.488281 -1.216800 -2.425780 2.259082720e-38
-0.477295 -1.208980 -2.410160 2.203982123e-38
-0.468750 -1.206050 -2.404300 2.185615304e-38
-0.460693 -1.205080 -2.402340 2.176432035e-38
-0.452881 -1.203130 -2.398440 2.176432035e-38
-0.445313 -1.203130 -2.398440 2.176432035e-38
-0.437744 -1.203130 -2.398440 2.185615304e-38
-0.430664 -1.205080 -2.402340 2.194798714e-38
-0.423584 -1.206050 -2.404300 2.222349082e-38
-0.416260 -1.207030 -2.406250 2.259082720e-38
-0.409180 -1.208980 -2.410160 2.259082720e-38
-0.402344 -1.209960 -2.412110 2.277449539e-38
-0.395264 -1.211910 -2.416020 2.286632949e-38
-0.387939 -1.212890 -2.417970 2.295816358e-38
-0.380371 -1.212890 -2.417970 2.295816358e-38
-0.373047 -1.213870 -2.419920 2.295816358e-38
-0.365479 -1.213870 -2.419920 2.286632949e-38
-0.357666 -1.212890 -2.417970 2.268266130e-38
-0.349609 -1.211910 -2.416020 2.240715901e-38
-0.341797 -1.210940 -2.414060 2.203982263e-38
-0.333740 -1.208980 -2.410160 2.203982263e-38
-0.325684 -1.207030 -2.406250 2.185615304e-38
-0.317871 -1.206050 -2.404300 2.176432035e-38
-0.310059 -1.205080 -2.402340 2.158065216e-38
-0.302490 -1.205080 -2.402340 2.158065216e-38
-0.294922 -1.205080 -2.402340 2.158065216e-38
-0.287354 -1.205080 -2.402340 2.158065216e-38
-0.280029 -1.206050 -2.404300 2.158065216e-38
-0.272705 -1.207030 -2.406250 2.158065216e-38
-0.265625 -1.208980 -2.410160 2.185615444e-38
-0.258301 -1.209960 -2.412110 2.185615444e-38
-0.250732 -1.210940 -2.414060 2.194798854e-38
-0.243530 -1.211910 -2.416020 2.203982123e-38
-0.236084 -1.211910 -2.416020 2.222349082e-38
-0.228760 -1.213870 -2.419920 2.259082720e-38
-0.221436 -1.214840 -2.421880 2.259082720e-38
-0.214111 -1.216800 -2.425780 2.268266130e-38
-0.206909 -1.218750 -2.429690 2.286632949e-38
-0.199707 -1.222660 -2.437500 2.304999768e-38
-0.192627 -1.225590 -2.443360 2.341733406e-38
-0.185425 -1.228520 -2.449220 2.341733406e-38
-0.178101 -1.230470 -2.453130 2.341661659e-38
-0.170532 -1.232420 -2.457030 2.341625786e-38
-0.162964 -1.233400 -2.458980 2.341625786e-38
-0.155273 -1.233400 -2.458980 2.341589913e-38
-0.147705 -1.234380 -2.460940 2.341589913e-38
-0.139893 -1.234380 -2.460940 2.341625786e-38
-0.132202 -1.234380 -2.460940 2.341625786e-38
-0.124573 -1.234380 -2.460940 2.341625786e-38
-0.116821 -1.234380 -2.460940 2.341625786e-38
-0.109131 -1.234380 -2.460940 2.341625786e-38
-0.101379 -1.234380 -2.460940 2.341661659e-38
-0.093628 -1.234380 -2.460940 2.341697532e-38
-0.085877 -1.234380 -2.460940 2.341733406e-38
-0.078064 -1.233400 -2.458980 2.332549996e-38
-0.070313 -1.232420 -2.457030 2.332549996e-38
-0.062561 -1.231450 -2.455080 2.332549996e-38
-0.054779 -1.229490 -2.451170 2.332549996e-38
-0.047028 -1.227540 -2.447270 2.323366587e-38
-0.039246 -1.225590 -2.443360 2.295816358e-38
-0.031494 -1.221680 -2.435550 2.295816358e-38
-0.023758 -1.216800 -2.425780 2.277449539e-38
-0.016083 -1.211910 -2.416020 2.259082720e-38
-0.008453 -1.207030 -2.406250 2.222349082e-38
-0.000904 -1.201170 -2.394530 2.158065216e-38
0.006580 -1.195310 -2.382810 2.158065216e-38
0.014000 -1.190430 -2.373050 2.121331578e-38
0.021362 -1.185550 -2.365230 2.084597800e-38
0.028686 -1.181640 -2.355470 2.057047711e-38
0.035919 -1.176760 -2.345700 1.983580436e-38
0.043121 -1.172850 -2.337890 1.983580436e-38
0.050262 -1.166990 -2.326170 1.946846798e-38
0.057282 -1.162110 -2.316410 1.900929610e-38
0.064209 -1.156250 -2.304690 1.855012703e-38
0.071106 -1.150390 -2.292970 1.726444970e-38
0.077881 -1.143550 -2.279300 1.726444970e-38
0.084534 -1.136720 -2.267580 1.616244056e-38
0.091003 -1.129880 -2.251950 1.460126095e-38
0.097412 -1.121090 -2.236330 1.313191543e-38
0.103638 -1.113280 -2.218750 1.092789715e-38
0.109619 -1.103520 -2.199220 1.092789715e-38
0.115479 -1.093750 -2.179690 9.734053921e-39
0.120483 -1.077150 -2.146480 8.448375192e-39
0.125854 -1.065430 -2.123050 8.356542499e-39
0.132446 -1.065430 -2.123050 8.264707002e-39
0.139038 -1.064450 -2.123050 8.264707002e-39
0.146118 -1.067380 -2.126950 9.458551637e-39
0.153687 -1.073240 -2.140630 1.028505849e-38
0.162354 -1.085940 -2.166020 1.028505849e-38
0.170776 -1.097660 -2.187500 1.432575866e-38
0.179321 -1.107420 -2.207030 1.432575866e-38
0.188232 -1.119140 -2.230470 1.643794285e-38
0.196411 -1.125980 -2.244140 1.744811649e-38
0.204712 -1.132810 -2.257810 1.809095515e-38
0.212524 -1.136720 -2.265630 1.855012703e-38
0.220215 -1.139650 -2.271480 1.855012703e-38
0.227539 -1.140630 -2.273440 1.845829293e-38
0.234741 -1.140630 -2.273440 1.827462474e-38
0.241333 -1.137700 -2.269530 1.781545427e-38
0.247559 -1.133790 -2.261720 1.506043002e-38
0.253174 -1.127930 -2.248050 1.506043002e-38
0.258301 -1.120120 -2.232420 1.322374953e-38
0.261475 -1.102540 -2.199220 1.157073442e-38
0.244385 -1.003910 -2.001950 8.429931302e-41
0.260254 -1.042970 -2.080080 8.178818617e-41
0.256592 -1.002930 -2.000000 8.178818617e-41
0.260254 -0.993652 -1.981450 7.604846766e-41
0.264160 -0.985352 -1.963870 6.995001674e-41
0.268555 -0.978516 -1.951170 6.456903064e-41
0.272705 -0.971191 -1.936520 4.986100196e-41
0.276367 -0.962891 -1.919920 4.986100196e-41
0.285156 -0.972168 -1.938480 4.412128345e-41
0.286133 -0.955078 -1.904300 3.407677606e-41
0.285889 -0.935059 -1.864260 2.761959273e-41
0.287109 -0.919922 -1.833980 1.865128256e-41
0.289063 -0.908203 -1.810550 1.865128256e-41
0.291748 -0.898438 -1.791990 1.685762053e-41
0.297119 -0.897949 -1.790040 1.649888812e-41
0.300781 -0.892090 -1.778320 1.614015571e-41
0.307129 -0.894531 -1.783200 1.721635293e-41
0.311035 -0.889648 -1.773440 1.721635293e-41
0.316650 -0.890137 -1.774410 2.546719829e-41
0.323975 -0.894531 -1.783200 6.205790379e-41
0.336182 -0.912598 -1.819340 8.573424264e-41
0.346680 -0.925293 -1.844730 5.693353748e-39
0.395752 -1.039060 -2.070310 5.693353748e-39
0.394775 -1.019530 -2.031250 4.775012799e-39
0.408203 -1.037110 -2.068360 6.887196981e-39
0.421875 -1.055660 -2.103520 8.356542499e-39
0.429932 -1.058590 -2.111330 9.366717542e-39
0.438965 -1.064450 -2.123050 9.366717542e-39
0.448242 -1.071290 -2.134770 9.825888016e-39
0.458496 -1.079100 -2.152340 1.019322440e-38
0.466064 -1.081050 -2.156250 1.019322440e-38
0.472656 -1.081050 -2.154300 9.825888016e-39
0.478760 -1.079100 -2.152340 9.825888016e-39
0.483887 -1.076170 -2.144530 9.458551637e-39
0.489014 -1.072270 -2.136720 8.999381163e-39
0.494141 -1.068360 -2.130860 8.632044783e-39
0.499023 -1.065430 -2.123050 7.713703834e-39
0.503906 -1.061520 -2.115230 7.713703834e-39
0.508301 -1.056640 -2.105470 7.254533360e-39
0.512695 -1.052730 -2.097660 6.795362886e-39
0.517090 -1.047850 -2.089840 6.336192412e-39
0.521484 -1.042970 -2.080080 5.142349178e-39
0.525879 -1.039060 -2.070310 5.142349178e-39
0.529785 -1.034180 -2.060550 4.407676420e-39
0.533691 -1.029300 -2.050780 3.673003661e-39
0.537598 -1.024410 -2.042970 3.030164997e-39
0.541504 -1.019530 -2.033200 1.560818078e-39
0.545898 -1.015630 -2.025390 1.560818078e-39
0.549805 -1.011720 -2.017580 1.009814910e-39
0.554199 -1.007810 -2.009770 2.751421509e-40
0.559082 -1.004880 -2.003910 8.896283431e-41
0.563477 -1.001950 -1.998050 8.429931302e-41
0.568359 -1.000000 -1.993160 8.429931302e-41
0.573242 -0.997559 -1.988280 8.250565098e-41
0.578125 -0.995117 -1.984380 8.071198895e-41
0.583496 -0.993652 -1.981450 8.035325654e-41
0.589355 -0.993164 -1.980470 8.035325654e-41
0.595703 -0.993164 -1.980470 8.035325654e-41
0.602051 -0.993164 -1.980470 8.071198895e-41
0.608398 -0.993652 -1.981450 8.142945376e-41
0.615234 -0.994141 -1.982420 8.178818617e-41
0.621582 -0.994629 -1.983400 8.178818617e-41
0.627930 -0.994629 -1.983400 8.178818617e-41
0.634277 -0.995117 -1.984380 8.178818617e-41
0.640625 -0.995117 -1.984380 8.250565098e-41
0.646973 -0.996094 -1.985350 8.250565098e-41
0.653809 -0.997070 -1.987300 8.429931302e-41
0.661133 -0.998047 -1.989260 8.429931302e-41
0.667969 -0.999023 -1.991210 8.537551024e-41
0.675293 -1.000000 -1.994140 8.681043986e-41
0.682617 -1.001950 -1.997070 8.752790468e-41
0.689941 -1.002930 -2.000000 8.932156671e-41
0.696777 -1.003910 -2.001950 8.932156671e-41
0.703613 -1.004880 -2.003910 9.039776393e-41
0.710449 -1.005860 -2.003910 9.039776393e-41
0.716797 -1.005860 -2.005860 9.111522875e-41
0.724121 -1.006840 -2.007810 1.833080560e-40
0.730469 -1.007810 -2.009770 1.833080560e-40
0.737793 -1.008790 -2.011720 2.751421509e-40
0.745117 -1.009770 -2.013670 5.506444355e-40
0.752441 -1.011720 -2.017580 9.179808149e-40
0.760254 -1.013670 -2.019530 1.560818078e-39
0.768066 -1.015630 -2.023440 1.560818078e-39
0.775391 -1.016600 -2.027340 1.928155858e-39
0.783691 -1.019530 -2.031250 2.387326333e-39
0.791504 -1.021480 -2.035160 2.938330902e-39
0.800293 -1.023440 -2.041020 4.040340040e-39
0.808594 -1.026370 -2.046880 4.040340040e-39
0.817871 -1.030270 -2.052730 4.775012799e-39
0.827148 -1.033200 -2.060550 5.509685558e-39
0.836426 -1.037110 -2.068360 6.152524222e-39
0.846680 -1.041990 -2.076170 7.254533360e-39
0.857422 -1.046880 -2.087890 7.254533360e-39
0.867676 -1.051760 -2.095700 7.805537929e-39
0.878418 -1.056640 -2.105470 8.264707002e-39
0.889160 -1.061520 -2.115230 8.632043382e-39
0.898926 -1.065430 -2.123050 9.366717542e-39
0.908691 -1.068360 -2.130860 9.366717542e-39
0.917969 -1.071290 -2.136720 9.550385732e-39
0.927246 -1.074220 -2.142580 9.642219827e-39
0.935059 -1.076170 -2.144530 9.642219827e-39
0.942871 -1.077150 -2.146480 9.366717542e-39
0.948730 -1.076170 -2.144530 9.366717542e-39
0.954102 -1.074220 -2.142580 8.907547068e-39
0.957520 -1.071290 -2.134770 8.356542499e-39
0.961426 -1.067380 -2.128910 7.897372024e-39
0.963867 -1.063480 -2.119140 7.070865170e-39
0.966309 -1.058590 -2.109380 7.070865170e-39
0.969727 -1.054690 -2.103520 6.795362886e-39
0.973633 -1.051760 -2.097660 6.611694696e-39
0.978027 -1.049800 -2.091800 6.519860601e-39
0.982422 -1.047850 -2.087890 6.336192412e-39
0.987305 -1.045900 -2.083980 6.336192412e-39
0.990723 -1.041990 -2.078130 6.152524222e-39
0.994141 -1.039060 -2.070310 5.693352346e-39
0.996094 -1.034180 -2.062500 5.050515084e-39
0.997070 -1.029300 -2.050780 3.305667281e-39
0.997559 -1.022460 -2.039060 3.305667281e-39
0.998535 -1.017580 -2.027340 2.387326333e-39
0.999512 -1.011720 -2.017580 1.468983983e-39
1.000980 -1.006840 -2.007810 7.343126252e-40
1.003910 -1.002930 -2.000000 8.932156671e-41
1.006840 -1.000980 -1.995120 8.932156671e-41
1.011720 -0.999512 -1.992190 8.860410190e-41
1.017580 -0.998535 -1.990230 8.860410190e-41
1.023440 -0.998535 -1.990230 8.860410190e-41
1.030270 -0.999023 -1.991210 8.932156671e-41
1.037110 -1.000000 -1.993160 8.932156671e-41
1.044920 -1.000980 -1.995120 9.003903153e-41
1.051760 -1.000980 -1.996090 9.039776393e-41
1.058590 -1.001950 -1.998050 9.111522875e-41
1.065430 -1.002930 -1.999020 9.039776393e-41
1.072270 -1.002930 -1.999020 9.039776393e-41
1.079100 -1.002930 -2.000000 9.003903153e-41
1.084960 -1.002930 -2.000000 8.896283431e-41
1.091800 -1.002930 -2.000000 8.860410190e-41
1.097660 -1.002930 -2.000000 8.932156671e-41
1.104490 -1.003910 -2.000000 8.932156671e-41
1.112300 -1.004880 -2.001950 9.111522875e-41
1.120120 -1.006840 -2.007810 4.588103406e-40
1.129880 -1.009770 -2.013670 1.285315793e-39
1.140630 -1.013670 -2.019530 3.030164997e-39
1.151370 -1.017580 -2.027340 3.030164997e-39
1.163090 -1.021480 -2.037110 3.764837756e-39
1.174800 -1.026370 -2.046880 4.499510514e-39
1.185550 -1.030270 -2.054690 5.050515084e-39
1.196290 -1.034180 -2.060550 5.601519653e-39
1.205080 -1.036130 -2.066410 5.601519653e-39
1.213870 -1.038090 -2.070310 5.693352346e-39
1.222660 -1.040040 -2.072270 5.785186441e-39
1.230470 -1.041020 -2.074220 5.785186441e-39
1.238280 -1.041990 -2.076170 5.785186441e-39
1.244140 -1.041990 -2.076170 5.785186441e-39
1.250980 -1.041990 -2.076170 5.785187842e-39
1.257810 -1.041990 -2.076170 5.693352346e-39
1.262700 -1.041020 -2.074220 5.601519653e-39
1.268550 -1.040040 -2.072270 5.234183273e-39
1.272460 -1.038090 -2.070310 5.234183273e-39
1.276370 -1.036130 -2.066410 4.958680989e-39
1.280270 -1.034180 -2.062500 4.683178704e-39
1.285160 -1.032230 -2.058590 4.224008230e-39
1.288090 -1.030270 -2.052730 3.397501376e-39
1.291020 -1.027340 -2.048830 3.397501376e-39
1.294920 -1.024410 -2.042970 3.121999092e-39
1.298830 -1.022460 -2.039060 2.754662712e-39
1.302730 -1.021480 -2.035160 2.570994522e-39
1.307620 -1.019530 -2.033200 2.295492238e-39
1.312500 -1.018550 -2.031250 2.295492238e-39
1.318360 -1.018550 -2.029300 2.203658143e-39
1.324220 -1.017580 -2.029300 2.295492238e-39
1.330080 -1.017580 -2.029300 2.295492238e-39
1.336910 -1.017580 -2.029300 2.479160428e-39
1.342770 -1.017580 -2.029300 2.479160428e-39
1.349610 -1.018550 -2.029300 2.570994522e-39
1.357420 -1.018550 -2.031250 2.754662712e-39
1.364260 -1.019530 -2.031250 2.938330902e-39
1.371090 -1.019530 -2.033200 3.305667281e-39
1.378910 -1.020510 -2.035160 3.305667281e-39
1.386720 -1.021480 -2.037110 3.305667281e-39
1.393550 -1.022460 -2.037110 3.489335471e-39
1.400390 -1.022460 -2.039060 3.489335471e-39
1.407230 -1.022460 -2.039060 3.397501376e-39
1.413090 -1.022460 -2.037110 3.397501376e-39
1.417970 -1.021480 -2.035160 3.305667281e-39
1.421880 -1.019530 -2.033200 3.030164997e-39
1.426760 -1.018550 -2.029300 2.662828617e-39
1.430660 -1.016600 -2.027340 1.928155858e-39
1.433590 -1.014650 -2.021480 1.928155858e-39
1.437500 -1.012700 -2.017580 1.468983983e-39
1.439450 -1.009770 -2.013670 9.179808149e-40
1.442380 -1.006840 -2.007810 1.833080560e-40
1.445310 -1.004880 -2.001950 8.537551024e-41
1.447270 -1.001950 -1.997070 8.537551024e-41
1.449220 -0.999023 -1.991210 8.178818617e-41
1.450200 -0.995117 -1.984380 7.855959451e-41
1.451170 -0.991699 -1.977540 7.568973525e-41
1.452150 -0.988281 -1.969730 7.030874915e-41
1.453130 -0.984863 -1.962890 7.030874915e-41
1.455080 -0.981934 -1.957030 6.815635471e-41
1.456050 -0.978516 -1.951170 6.672142508e-41
1.458980 -0.976074 -1.946290 6.528649545e-41
1.461910 -0.974121 -1.942380 6.313410101e-41
1.464840 -0.972168 -1.938480 6.313410101e-41
1.468750 -0.970703 -1.935550 6.205790379e-41
1.471680 -0.968750 -1.930660 6.062297416e-41
1.473630 -0.966309 -1.925780 5.882931213e-41
1.476560 -0.963867 -1.920900 5.416579084e-41
1.477540 -0.960449 -1.915040 5.416579084e-41
1.478520 -0.957031 -1.908200 5.093719918e-41
1.478520 -0.953613 -1.901370 4.734987511e-41
1.478520 -0.949707 -1.892580 4.412128345e-41
1.478520 -0.945313 -1.884770 3.945776216e-41
1.478520 -0.941895 -1.877930 3.945776216e-41
1.479490 -0.938965 -1.872070 3.802283253e-41
1.480470 -0.936035 -1.866210 3.658790290e-41
1.482420 -0.933594 -1.860350 3.551170568e-41
1.485350 -0.931641 -1.856450 3.335931124e-41
1.487300 -0.929199 -1.852540 3.335931124e-41
1.491210 -0.927734 -1.849610 3.264184643e-41
1.494140 -0.926270 -1.846680 3.228311402e-41
1.499020 -0.925293 -1.844730 3.156564921e-41
1.501950 -0.923828 -1.841800 3.013071958e-41
1.504880 -0.922363 -1.838870 3.013071958e-41
1.508790 -0.920898 -1.835940 2.941325477e-41
1.511720 -0.919434 -1.833010 2.905452236e-41
1.515630 -0.917969 -1.830080 2.833705755e-41
1.518550 -0.916504 -1.826170 2.797832514e-41
1.521480 -0.914551 -1.823240 2.797832514e-41
1.525390 -0.913574 -1.821290 2.761959273e-41
1.529300 -0.912598 -1.819340 2.761959273e-41
1.534180 -0.912109 -1.818360 2.761959273e-41
1.539060 -0.911621 -1.817380 2.761959273e-41
1.544920 -0.911621 -1.817380 2.761959273e-41
1.551760 -0.912109 -1.818360 2.797832514e-41
1.558590 -0.912598 -1.819340 2.797832514e-41
1.564450 -0.913086 -1.820310 2.833705755e-41
1.572270 -0.914063 -1.822270 2.833705755e-41
1.579100 -0.914551 -1.823240 2.833705755e-41
1.584960 -0.914551 -1.823240 2.869578995e-41
1.590820 -0.915527 -1.824220 2.869578995e-41
1.597660 -0.916016 -1.825200 2.905452236e-41
1.603520 -0.916016 -1.825200 2.905452236e-41
1.610350 -0.916504 -1.826170 2.905452236e-41
1.617190 -0.916992 -1.828130 2.941325477e-41
1.623050 -0.917480 -1.829100 2.941325477e-41
1.629880 -0.917969 -1.830080 2.977198717e-41
1.637700 -0.918945 -1.832030 3.048945199e-41
1.644530 -0.919434 -1.833010 3.048945199e-41
1.651370 -0.920410 -1.834960 3.048945199e-41
1.659180 -0.921387 -1.836910 3.120691680e-41
1.666990 -0.922363 -1.838870 3.156564921e-41
1.674800 -0.923340 -1.840820 3.264184643e-41
1.682620 -0.924805 -1.843750 3.264184643e-41
1.691410 -0.926270 -1.846680 3.371804365e-41
1.701170 -0.928223 -1.850590 3.479424087e-41
1.709960 -0.929688 -1.853520 3.551170568e-41
1.719730 -0.932129 -1.857420 3.730536772e-41
1.728520 -0.934082 -1.861330 3.730536772e-41
1.737300 -0.935547 -1.865230 3.766410012e-41
1.745120 -0.936523 -1.867190 3.838156494e-41
1.753910 -0.937988 -1.870120 3.874029734e-41
1.760740 -0.938477 -1.871090 3.945776216e-41
1.768550 -0.939453 -1.873050 3.945776216e-41
1.775390 -0.939941 -1.874020 3.981649457e-41
1.781250 -0.939941 -1.874020 3.945776216e-41
1.786130 -0.939453 -1.873050 3.909902975e-41
1.790040 -0.938477 -1.871090 3.694663531e-41
1.791990 -0.936523 -1.867190 3.694663531e-41
1.792970 -0.934082 -1.861330 3.551170568e-41
1.792970 -0.930664 -1.855470 3.335931124e-41
1.791990 -0.927246 -1.848630 3.156564921e-41
1.791020 -0.923828 -1.841800 2.833705755e-41
1.790040 -0.920410 -1.834960 2.833705755e-41
1.790040 -0.917480 -1.829100 2.726086032e-41
1.790040 -0.914063 -1.822270 2.654339551e-41
1.791020 -0.912109 -1.818360 2.582593070e-41
1.793950 -0.910645 -1.815430 2.510846588e-41
1.797850 -0.909668 -1.813480 2.510846588e-41
1.802730 -0.909180 -1.812500 2.510846588e-41
1.808590 -0.909180 -1.812500 2.510846588e-41
1.814450 -0.909180 -1.812500 2.510846588e-41
1.818360 -0.908691 -1.811520 2.546719829e-41
1.824220 -0.908691 -1.811520 2.546719829e-41
1.831050 -0.909180 -1.812500 2.582593070e-41
-2.974610 -1.542970 -3.056640 2.333518433e-38
-2.875000 -1.496090 -2.962890 2.333518433e-38
-2.851560 -1.488280 -2.949220 2.333590180e-38
-2.826170 -1.480470 -2.931640 2.333841293e-38
